2.098152 0.584600 0.300895 
2.089495 0.599289 0.300895 
2.080839 0.613978 0.300895 
2.072182 0.628667 0.300895 
2.063526 0.643356 0.300895 
2.054869 0.658044 0.300895 
2.046212 0.672733 0.300895 
2.037556 0.687422 0.300895 
2.028899 0.702111 0.300895 
2.020243 0.716800 0.300895 
2.011586 0.731489 0.300895 
2.002929 0.746178 0.300895 
1.994273 0.760867 0.300895 
1.985616 0.775556 0.300895 
1.976960 0.790244 0.300895 
1.968303 0.804933 0.300895 
1.959646 0.819622 0.300895 
1.950990 0.834311 0.300895 
1.942333 0.849000 0.300895 
1.942333 0.849000 0.308857 
1.942333 0.849000 0.316820 
1.942333 0.849000 0.324782 
1.942333 0.849000 0.332745 
1.942333 0.849000 0.340707 
1.942333 0.849000 0.348670 
1.942333 0.849000 0.356632 
1.942333 0.849000 0.364595 
1.942333 0.849000 0.372558 
1.942333 0.849000 0.380520 
1.942333 0.849000 0.388483 
1.942333 0.849000 0.396445 
1.942333 0.849000 0.404408 
1.942333 0.849000 0.412370 
1.942333 0.849000 0.420333 
1.942333 0.849000 0.428295 
1.942333 0.849000 0.436258 
1.942333 0.849000 0.444220 
1.942333 0.849000 0.452183 
1.942333 0.849000 0.460145 
1.942333 0.849000 0.468108 
1.942333 0.849000 0.476070 
1.942333 0.849000 0.484033 
1.942333 0.849000 0.491996 
1.942333 0.849000 0.499958 
1.942333 0.849000 0.507921 
1.942333 0.849000 0.515883 
1.942333 0.849000 0.523846 
1.942333 0.849000 0.531808 
1.942333 0.849000 0.539771 
1.942333 0.849000 0.547733 
1.942333 0.849000 0.555696 
1.942333 0.849000 0.563658 
1.942333 0.849000 0.571621 
1.942333 0.849000 0.579583 
1.942333 0.849000 0.587546 
1.942333 0.849000 0.595508 
1.942333 0.849000 0.603471 
1.942333 0.849000 0.611434 
1.942333 0.849000 0.619396 
1.942333 0.849000 0.627359 
1.942333 0.849000 0.635321 
1.942333 0.849000 0.643284 
1.942333 0.849000 0.651246 
1.942333 0.849000 0.659209 
1.942333 0.849000 0.667171 
1.942333 0.849000 0.675134 
1.942333 0.849000 0.683096 
1.942333 0.849000 0.691059 
1.942333 0.849000 0.699021 
1.942333 0.849000 0.706984 
1.942333 0.849000 0.714946 
1.942333 0.849000 0.722909 
1.942333 0.849000 0.730872 
1.942333 0.849000 0.738834 
1.942333 0.849000 0.746797 
1.942333 0.849000 0.754759 
1.942333 0.849000 0.762722 
1.942333 0.849000 0.770684 
1.942333 0.849000 0.778647 
1.942333 0.849000 0.786609 
1.942333 0.849000 0.794572 
1.942333 0.849000 0.802534 
1.942333 0.849000 0.810497 
1.942333 0.849000 0.818459 
1.942333 0.849000 0.826422 
1.942333 0.849000 0.834384 
1.942333 0.849000 0.842347 
1.942333 0.849000 0.850310 
1.942333 0.849000 0.858272 
1.942333 0.849000 0.866235 
1.942333 0.849000 0.874197 
1.942333 0.849000 0.882160 
1.942333 0.849000 0.890122 
1.942333 0.849000 0.898085 
1.942333 0.849000 0.906047 
1.942333 0.849000 0.914010 
1.942333 0.849000 0.921972 
1.942333 0.849000 0.929935 
1.942333 0.849000 0.937897 
1.942333 0.849000 0.945860 
1.942333 0.849000 0.953822 
1.942333 0.849000 0.953822 
1.950990 0.834311 0.953822 
1.959646 0.819622 0.953822 
1.968303 0.804933 0.953822 
1.976960 0.790244 0.953822 
1.985616 0.775556 0.953822 
1.994273 0.760867 0.953822 
2.002929 0.746178 0.953822 
2.011586 0.731489 0.953822 
2.020243 0.716800 0.953822 
2.028899 0.702111 0.953822 
2.037556 0.687422 0.953822 
2.046212 0.672733 0.953822 
2.054869 0.658044 0.953822 
2.063526 0.643356 0.953822 
2.072182 0.628667 0.953822 
2.080839 0.613978 0.953822 
2.089495 0.599289 0.953822 
2.098152 0.584600 0.953822 
2.098152 0.584600 0.945860 
2.098152 0.584600 0.937897 
2.098152 0.584600 0.929935 
2.098152 0.584600 0.921972 
2.098152 0.584600 0.914010 
2.098152 0.584600 0.906047 
2.098152 0.584600 0.898085 
2.098152 0.584600 0.890122 
2.098152 0.584600 0.882160 
2.098152 0.584600 0.874197 
2.098152 0.584600 0.866235 
2.098152 0.584600 0.858272 
2.098152 0.584600 0.850310 
2.098152 0.584600 0.842347 
2.098152 0.584600 0.834384 
2.098152 0.584600 0.826422 
2.098152 0.584600 0.818459 
2.098152 0.584600 0.810497 
2.098152 0.584600 0.802534 
2.098152 0.584600 0.794572 
2.098152 0.584600 0.786609 
2.098152 0.584600 0.778647 
2.098152 0.584600 0.770684 
2.098152 0.584600 0.762722 
2.098152 0.584600 0.754759 
2.098152 0.584600 0.746797 
2.098152 0.584600 0.738834 
2.098152 0.584600 0.730872 
2.098152 0.584600 0.722909 
2.098152 0.584600 0.714946 
2.098152 0.584600 0.706984 
2.098152 0.584600 0.699021 
2.098152 0.584600 0.691059 
2.098152 0.584600 0.683096 
2.098152 0.584600 0.675134 
2.098152 0.584600 0.667171 
2.098152 0.584600 0.659209 
2.098152 0.584600 0.651246 
2.098152 0.584600 0.643284 
2.098152 0.584600 0.635321 
2.098152 0.584600 0.627359 
2.098152 0.584600 0.619396 
2.098152 0.584600 0.611434 
2.098152 0.584600 0.603471 
2.098152 0.584600 0.595508 
2.098152 0.584600 0.587546 
2.098152 0.584600 0.579583 
2.098152 0.584600 0.571621 
2.098152 0.584600 0.563658 
2.098152 0.584600 0.555696 
2.098152 0.584600 0.547733 
2.098152 0.584600 0.539771 
2.098152 0.584600 0.531808 
2.098152 0.584600 0.523846 
2.098152 0.584600 0.515883 
2.098152 0.584600 0.507921 
2.098152 0.584600 0.499958 
2.098152 0.584600 0.491996 
2.098152 0.584600 0.484033 
2.098152 0.584600 0.476070 
2.098152 0.584600 0.468108 
2.098152 0.584600 0.460145 
2.098152 0.584600 0.452183 
2.098152 0.584600 0.444220 
2.098152 0.584600 0.436258 
2.098152 0.584600 0.428295 
2.098152 0.584600 0.420333 
2.098152 0.584600 0.412370 
2.098152 0.584600 0.404408 
2.098152 0.584600 0.396445 
2.098152 0.584600 0.388483 
2.098152 0.584600 0.380520 
2.098152 0.584600 0.372558 
2.098152 0.584600 0.364595 
2.098152 0.584600 0.356632 
2.098152 0.584600 0.348670 
2.098152 0.584600 0.340707 
2.098152 0.584600 0.332745 
2.098152 0.584600 0.324782 
2.098152 0.584600 0.316820 
2.098152 0.584600 0.308857 
2.098152 0.584600 0.300895 
