2.098152 0.584600 1.086293 
2.089495 0.599289 1.086293 
2.080839 0.613978 1.086293 
2.072182 0.628667 1.086293 
2.063526 0.643356 1.086293 
2.054869 0.658044 1.086293 
2.046212 0.672733 1.086293 
2.037556 0.687422 1.086293 
2.028899 0.702111 1.086293 
2.020243 0.716800 1.086293 
2.011586 0.731489 1.086293 
2.002929 0.746178 1.086293 
1.994273 0.760867 1.086293 
1.985616 0.775556 1.086293 
1.976960 0.790244 1.086293 
1.968303 0.804933 1.086293 
1.959646 0.819622 1.086293 
1.950990 0.834311 1.086293 
1.942333 0.849000 1.086293 
1.942333 0.849000 1.094255 
1.942333 0.849000 1.102218 
1.942333 0.849000 1.110181 
1.942333 0.849000 1.118143 
1.942333 0.849000 1.126106 
1.942333 0.849000 1.134068 
1.942333 0.849000 1.142031 
1.942333 0.849000 1.149993 
1.942333 0.849000 1.157956 
1.942333 0.849000 1.165918 
1.942333 0.849000 1.173881 
1.942333 0.849000 1.181843 
1.942333 0.849000 1.189806 
1.942333 0.849000 1.197768 
1.942333 0.849000 1.205731 
1.942333 0.849000 1.213693 
1.942333 0.849000 1.221656 
1.942333 0.849000 1.229619 
1.942333 0.849000 1.237581 
1.942333 0.849000 1.245544 
1.942333 0.849000 1.253506 
1.942333 0.849000 1.261469 
1.942333 0.849000 1.269431 
1.942333 0.849000 1.277394 
1.942333 0.849000 1.285356 
1.942333 0.849000 1.293319 
1.942333 0.849000 1.301281 
1.942333 0.849000 1.309244 
1.942333 0.849000 1.317206 
1.942333 0.849000 1.325169 
1.942333 0.849000 1.333131 
1.942333 0.849000 1.341094 
1.942333 0.849000 1.349057 
1.942333 0.849000 1.357019 
1.942333 0.849000 1.364982 
1.942333 0.849000 1.372944 
1.942333 0.849000 1.380907 
1.942333 0.849000 1.388869 
1.942333 0.849000 1.396832 
1.942333 0.849000 1.404794 
1.942333 0.849000 1.412757 
1.942333 0.849000 1.420719 
1.942333 0.849000 1.428682 
1.942333 0.849000 1.436644 
1.942333 0.849000 1.444607 
1.942333 0.849000 1.452569 
1.942333 0.849000 1.460532 
1.942333 0.849000 1.468494 
1.942333 0.849000 1.476457 
1.942333 0.849000 1.484420 
1.942333 0.849000 1.492382 
1.942333 0.849000 1.500345 
1.942333 0.849000 1.508307 
1.942333 0.849000 1.516270 
1.942333 0.849000 1.524232 
1.942333 0.849000 1.532195 
1.942333 0.849000 1.540157 
1.942333 0.849000 1.548120 
1.942333 0.849000 1.556082 
1.942333 0.849000 1.564045 
1.942333 0.849000 1.572007 
1.942333 0.849000 1.579970 
1.942333 0.849000 1.587932 
1.942333 0.849000 1.595895 
1.942333 0.849000 1.603858 
1.942333 0.849000 1.611820 
1.942333 0.849000 1.619783 
1.942333 0.849000 1.627745 
1.942333 0.849000 1.635708 
1.942333 0.849000 1.643670 
1.942333 0.849000 1.651633 
1.942333 0.849000 1.659595 
1.942333 0.849000 1.667558 
1.942333 0.849000 1.675520 
1.942333 0.849000 1.683483 
1.942333 0.849000 1.691445 
1.942333 0.849000 1.699408 
1.942333 0.849000 1.707370 
1.942333 0.849000 1.715333 
1.942333 0.849000 1.723296 
1.942333 0.849000 1.731258 
1.942333 0.849000 1.739221 
1.942333 0.849000 1.739221 
1.950990 0.834311 1.739221 
1.959646 0.819622 1.739221 
1.968303 0.804933 1.739221 
1.976960 0.790244 1.739221 
1.985616 0.775556 1.739221 
1.994273 0.760867 1.739221 
2.002929 0.746178 1.739221 
2.011586 0.731489 1.739221 
2.020243 0.716800 1.739221 
2.028899 0.702111 1.739221 
2.037556 0.687422 1.739221 
2.046212 0.672733 1.739221 
2.054869 0.658044 1.739221 
2.063526 0.643356 1.739221 
2.072182 0.628667 1.739221 
2.080839 0.613978 1.739221 
2.089495 0.599289 1.739221 
2.098152 0.584600 1.739221 
2.098152 0.584600 1.731258 
2.098152 0.584600 1.723296 
2.098152 0.584600 1.715333 
2.098152 0.584600 1.707370 
2.098152 0.584600 1.699408 
2.098152 0.584600 1.691445 
2.098152 0.584600 1.683483 
2.098152 0.584600 1.675520 
2.098152 0.584600 1.667558 
2.098152 0.584600 1.659595 
2.098152 0.584600 1.651633 
2.098152 0.584600 1.643670 
2.098152 0.584600 1.635708 
2.098152 0.584600 1.627745 
2.098152 0.584600 1.619783 
2.098152 0.584600 1.611820 
2.098152 0.584600 1.603858 
2.098152 0.584600 1.595895 
2.098152 0.584600 1.587932 
2.098152 0.584600 1.579970 
2.098152 0.584600 1.572007 
2.098152 0.584600 1.564045 
2.098152 0.584600 1.556082 
2.098152 0.584600 1.548120 
2.098152 0.584600 1.540157 
2.098152 0.584600 1.532195 
2.098152 0.584600 1.524232 
2.098152 0.584600 1.516270 
2.098152 0.584600 1.508307 
2.098152 0.584600 1.500345 
2.098152 0.584600 1.492382 
2.098152 0.584600 1.484420 
2.098152 0.584600 1.476457 
2.098152 0.584600 1.468494 
2.098152 0.584600 1.460532 
2.098152 0.584600 1.452569 
2.098152 0.584600 1.444607 
2.098152 0.584600 1.436644 
2.098152 0.584600 1.428682 
2.098152 0.584600 1.420719 
2.098152 0.584600 1.412757 
2.098152 0.584600 1.404794 
2.098152 0.584600 1.396832 
2.098152 0.584600 1.388869 
2.098152 0.584600 1.380907 
2.098152 0.584600 1.372944 
2.098152 0.584600 1.364982 
2.098152 0.584600 1.357019 
2.098152 0.584600 1.349057 
2.098152 0.584600 1.341094 
2.098152 0.584600 1.333131 
2.098152 0.584600 1.325169 
2.098152 0.584600 1.317206 
2.098152 0.584600 1.309244 
2.098152 0.584600 1.301281 
2.098152 0.584600 1.293319 
2.098152 0.584600 1.285356 
2.098152 0.584600 1.277394 
2.098152 0.584600 1.269431 
2.098152 0.584600 1.261469 
2.098152 0.584600 1.253506 
2.098152 0.584600 1.245544 
2.098152 0.584600 1.237581 
2.098152 0.584600 1.229619 
2.098152 0.584600 1.221656 
2.098152 0.584600 1.213693 
2.098152 0.584600 1.205731 
2.098152 0.584600 1.197768 
2.098152 0.584600 1.189806 
2.098152 0.584600 1.181843 
2.098152 0.584600 1.173881 
2.098152 0.584600 1.165918 
2.098152 0.584600 1.157956 
2.098152 0.584600 1.149993 
2.098152 0.584600 1.142031 
2.098152 0.584600 1.134068 
2.098152 0.584600 1.126106 
2.098152 0.584600 1.118143 
2.098152 0.584600 1.110181 
2.098152 0.584600 1.102218 
2.098152 0.584600 1.094255 
2.098152 0.584600 1.086293 
