2.098152 0.584600 1.871691 
2.089495 0.599289 1.871691 
2.080839 0.613978 1.871691 
2.072182 0.628667 1.871691 
2.063526 0.643356 1.871691 
2.054869 0.658044 1.871691 
2.046212 0.672733 1.871691 
2.037556 0.687422 1.871691 
2.028899 0.702111 1.871691 
2.020243 0.716800 1.871691 
2.011586 0.731489 1.871691 
2.002929 0.746178 1.871691 
1.994273 0.760867 1.871691 
1.985616 0.775556 1.871691 
1.976960 0.790244 1.871691 
1.968303 0.804933 1.871691 
1.959646 0.819622 1.871691 
1.950990 0.834311 1.871691 
1.942333 0.849000 1.871691 
1.942333 0.849000 1.879654 
1.942333 0.849000 1.887616 
1.942333 0.849000 1.895579 
1.942333 0.849000 1.903541 
1.942333 0.849000 1.911504 
1.942333 0.849000 1.919466 
1.942333 0.849000 1.927429 
1.942333 0.849000 1.935391 
1.942333 0.849000 1.943354 
1.942333 0.849000 1.951316 
1.942333 0.849000 1.959279 
1.942333 0.849000 1.967241 
1.942333 0.849000 1.975204 
1.942333 0.849000 1.983167 
1.942333 0.849000 1.991129 
1.942333 0.849000 1.999092 
1.942333 0.849000 2.007054 
1.942333 0.849000 2.015017 
1.942333 0.849000 2.022979 
1.942333 0.849000 2.030942 
1.942333 0.849000 2.038904 
1.942333 0.849000 2.046867 
1.942333 0.849000 2.054829 
1.942333 0.849000 2.062792 
1.942333 0.849000 2.070754 
1.942333 0.849000 2.078717 
1.942333 0.849000 2.086679 
1.942333 0.849000 2.094642 
1.942333 0.849000 2.102605 
1.942333 0.849000 2.110567 
1.942333 0.849000 2.118530 
1.942333 0.849000 2.126492 
1.942333 0.849000 2.134455 
1.942333 0.849000 2.142417 
1.942333 0.849000 2.150380 
1.942333 0.849000 2.158342 
1.942333 0.849000 2.166305 
1.942333 0.849000 2.174267 
1.942333 0.849000 2.182230 
1.942333 0.849000 2.190192 
1.942333 0.849000 2.198155 
1.942333 0.849000 2.206117 
1.942333 0.849000 2.214080 
1.942333 0.849000 2.222043 
1.942333 0.849000 2.230005 
1.942333 0.849000 2.237968 
1.942333 0.849000 2.245930 
1.942333 0.849000 2.253893 
1.942333 0.849000 2.261855 
1.942333 0.849000 2.269818 
1.942333 0.849000 2.277780 
1.942333 0.849000 2.285743 
1.942333 0.849000 2.293705 
1.942333 0.849000 2.301668 
1.942333 0.849000 2.309630 
1.942333 0.849000 2.317593 
1.942333 0.849000 2.325555 
1.942333 0.849000 2.333518 
1.942333 0.849000 2.341481 
1.942333 0.849000 2.349443 
1.942333 0.849000 2.357406 
1.942333 0.849000 2.365368 
1.942333 0.849000 2.373331 
1.942333 0.849000 2.381293 
1.942333 0.849000 2.389256 
1.942333 0.849000 2.397218 
1.942333 0.849000 2.405181 
1.942333 0.849000 2.413143 
1.942333 0.849000 2.421106 
1.942333 0.849000 2.429068 
1.942333 0.849000 2.437031 
1.942333 0.849000 2.444993 
1.942333 0.849000 2.452956 
1.942333 0.849000 2.460919 
1.942333 0.849000 2.468881 
1.942333 0.849000 2.476844 
1.942333 0.849000 2.484806 
1.942333 0.849000 2.492769 
1.942333 0.849000 2.500731 
1.942333 0.849000 2.508694 
1.942333 0.849000 2.516656 
1.942333 0.849000 2.524619 
1.942333 0.849000 2.524619 
1.950990 0.834311 2.524619 
1.959646 0.819622 2.524619 
1.968303 0.804933 2.524619 
1.976960 0.790244 2.524619 
1.985616 0.775556 2.524619 
1.994273 0.760867 2.524619 
2.002929 0.746178 2.524619 
2.011586 0.731489 2.524619 
2.020243 0.716800 2.524619 
2.028899 0.702111 2.524619 
2.037556 0.687422 2.524619 
2.046212 0.672733 2.524619 
2.054869 0.658044 2.524619 
2.063526 0.643356 2.524619 
2.072182 0.628667 2.524619 
2.080839 0.613978 2.524619 
2.089495 0.599289 2.524619 
2.098152 0.584600 2.524619 
2.098152 0.584600 2.516656 
2.098152 0.584600 2.508694 
2.098152 0.584600 2.500731 
2.098152 0.584600 2.492769 
2.098152 0.584600 2.484806 
2.098152 0.584600 2.476844 
2.098152 0.584600 2.468881 
2.098152 0.584600 2.460919 
2.098152 0.584600 2.452956 
2.098152 0.584600 2.444993 
2.098152 0.584600 2.437031 
2.098152 0.584600 2.429068 
2.098152 0.584600 2.421106 
2.098152 0.584600 2.413143 
2.098152 0.584600 2.405181 
2.098152 0.584600 2.397218 
2.098152 0.584600 2.389256 
2.098152 0.584600 2.381293 
2.098152 0.584600 2.373331 
2.098152 0.584600 2.365368 
2.098152 0.584600 2.357406 
2.098152 0.584600 2.349443 
2.098152 0.584600 2.341481 
2.098152 0.584600 2.333518 
2.098152 0.584600 2.325555 
2.098152 0.584600 2.317593 
2.098152 0.584600 2.309630 
2.098152 0.584600 2.301668 
2.098152 0.584600 2.293705 
2.098152 0.584600 2.285743 
2.098152 0.584600 2.277780 
2.098152 0.584600 2.269818 
2.098152 0.584600 2.261855 
2.098152 0.584600 2.253893 
2.098152 0.584600 2.245930 
2.098152 0.584600 2.237968 
2.098152 0.584600 2.230005 
2.098152 0.584600 2.222043 
2.098152 0.584600 2.214080 
2.098152 0.584600 2.206117 
2.098152 0.584600 2.198155 
2.098152 0.584600 2.190192 
2.098152 0.584600 2.182230 
2.098152 0.584600 2.174267 
2.098152 0.584600 2.166305 
2.098152 0.584600 2.158342 
2.098152 0.584600 2.150380 
2.098152 0.584600 2.142417 
2.098152 0.584600 2.134455 
2.098152 0.584600 2.126492 
2.098152 0.584600 2.118530 
2.098152 0.584600 2.110567 
2.098152 0.584600 2.102605 
2.098152 0.584600 2.094642 
2.098152 0.584600 2.086679 
2.098152 0.584600 2.078717 
2.098152 0.584600 2.070754 
2.098152 0.584600 2.062792 
2.098152 0.584600 2.054829 
2.098152 0.584600 2.046867 
2.098152 0.584600 2.038904 
2.098152 0.584600 2.030942 
2.098152 0.584600 2.022979 
2.098152 0.584600 2.015017 
2.098152 0.584600 2.007054 
2.098152 0.584600 1.999092 
2.098152 0.584600 1.991129 
2.098152 0.584600 1.983167 
2.098152 0.584600 1.975204 
2.098152 0.584600 1.967241 
2.098152 0.584600 1.959279 
2.098152 0.584600 1.951316 
2.098152 0.584600 1.943354 
2.098152 0.584600 1.935391 
2.098152 0.584600 1.927429 
2.098152 0.584600 1.919466 
2.098152 0.584600 1.911504 
2.098152 0.584600 1.903541 
2.098152 0.584600 1.895579 
2.098152 0.584600 1.887616 
2.098152 0.584600 1.879654 
2.098152 0.584600 1.871691 
