2.098152 0.584600 2.657089 
2.089495 0.599289 2.657089 
2.080839 0.613978 2.657089 
2.072182 0.628667 2.657089 
2.063526 0.643356 2.657089 
2.054869 0.658044 2.657089 
2.046212 0.672733 2.657089 
2.037556 0.687422 2.657089 
2.028899 0.702111 2.657089 
2.020243 0.716800 2.657089 
2.011586 0.731489 2.657089 
2.002929 0.746178 2.657089 
1.994273 0.760867 2.657089 
1.985616 0.775556 2.657089 
1.976960 0.790244 2.657089 
1.968303 0.804933 2.657089 
1.959646 0.819622 2.657089 
1.950990 0.834311 2.657089 
1.942333 0.849000 2.657089 
1.942333 0.849000 2.665052 
1.942333 0.849000 2.673014 
1.942333 0.849000 2.680977 
1.942333 0.849000 2.688939 
1.942333 0.849000 2.696902 
1.942333 0.849000 2.704864 
1.942333 0.849000 2.712827 
1.942333 0.849000 2.720790 
1.942333 0.849000 2.728752 
1.942333 0.849000 2.736715 
1.942333 0.849000 2.744677 
1.942333 0.849000 2.752640 
1.942333 0.849000 2.760602 
1.942333 0.849000 2.768565 
1.942333 0.849000 2.776527 
1.942333 0.849000 2.784490 
1.942333 0.849000 2.792452 
1.942333 0.849000 2.800415 
1.942333 0.849000 2.808377 
1.942333 0.849000 2.816340 
1.942333 0.849000 2.824302 
1.942333 0.849000 2.832265 
1.942333 0.849000 2.840228 
1.942333 0.849000 2.848190 
1.942333 0.849000 2.856153 
1.942333 0.849000 2.864115 
1.942333 0.849000 2.872078 
1.942333 0.849000 2.880040 
1.942333 0.849000 2.888003 
1.942333 0.849000 2.895965 
1.942333 0.849000 2.903928 
1.942333 0.849000 2.911890 
1.942333 0.849000 2.919853 
1.942333 0.849000 2.927815 
1.942333 0.849000 2.935778 
1.942333 0.849000 2.943740 
1.942333 0.849000 2.951703 
1.942333 0.849000 2.959665 
1.942333 0.849000 2.967628 
1.942333 0.849000 2.975591 
1.942333 0.849000 2.983553 
1.942333 0.849000 2.991516 
1.942333 0.849000 2.999478 
1.942333 0.849000 3.007441 
1.942333 0.849000 3.015403 
1.942333 0.849000 3.023366 
1.942333 0.849000 3.031328 
1.942333 0.849000 3.039291 
1.942333 0.849000 3.047253 
1.942333 0.849000 3.055216 
1.942333 0.849000 3.063178 
1.942333 0.849000 3.071141 
1.942333 0.849000 3.079103 
1.942333 0.849000 3.087066 
1.942333 0.849000 3.095029 
1.942333 0.849000 3.102991 
1.942333 0.849000 3.110954 
1.942333 0.849000 3.118916 
1.942333 0.849000 3.126879 
1.942333 0.849000 3.134841 
1.942333 0.849000 3.142804 
1.942333 0.849000 3.150766 
1.942333 0.849000 3.158729 
1.942333 0.849000 3.166691 
1.942333 0.849000 3.174654 
1.942333 0.849000 3.182616 
1.942333 0.849000 3.190579 
1.942333 0.849000 3.198541 
1.942333 0.849000 3.206504 
1.942333 0.849000 3.214467 
1.942333 0.849000 3.222429 
1.942333 0.849000 3.230392 
1.942333 0.849000 3.238354 
1.942333 0.849000 3.246317 
1.942333 0.849000 3.254279 
1.942333 0.849000 3.262242 
1.942333 0.849000 3.270204 
1.942333 0.849000 3.278167 
1.942333 0.849000 3.286129 
1.942333 0.849000 3.294092 
1.942333 0.849000 3.302054 
1.942333 0.849000 3.310017 
1.942333 0.849000 3.310017 
1.950990 0.834311 3.310017 
1.959646 0.819622 3.310017 
1.968303 0.804933 3.310017 
1.976960 0.790244 3.310017 
1.985616 0.775556 3.310017 
1.994273 0.760867 3.310017 
2.002929 0.746178 3.310017 
2.011586 0.731489 3.310017 
2.020243 0.716800 3.310017 
2.028899 0.702111 3.310017 
2.037556 0.687422 3.310017 
2.046212 0.672733 3.310017 
2.054869 0.658044 3.310017 
2.063526 0.643356 3.310017 
2.072182 0.628667 3.310017 
2.080839 0.613978 3.310017 
2.089495 0.599289 3.310017 
2.098152 0.584600 3.310017 
2.098152 0.584600 3.302054 
2.098152 0.584600 3.294092 
2.098152 0.584600 3.286129 
2.098152 0.584600 3.278167 
2.098152 0.584600 3.270204 
2.098152 0.584600 3.262242 
2.098152 0.584600 3.254279 
2.098152 0.584600 3.246317 
2.098152 0.584600 3.238354 
2.098152 0.584600 3.230392 
2.098152 0.584600 3.222429 
2.098152 0.584600 3.214467 
2.098152 0.584600 3.206504 
2.098152 0.584600 3.198541 
2.098152 0.584600 3.190579 
2.098152 0.584600 3.182616 
2.098152 0.584600 3.174654 
2.098152 0.584600 3.166691 
2.098152 0.584600 3.158729 
2.098152 0.584600 3.150766 
2.098152 0.584600 3.142804 
2.098152 0.584600 3.134841 
2.098152 0.584600 3.126879 
2.098152 0.584600 3.118916 
2.098152 0.584600 3.110954 
2.098152 0.584600 3.102991 
2.098152 0.584600 3.095029 
2.098152 0.584600 3.087066 
2.098152 0.584600 3.079103 
2.098152 0.584600 3.071141 
2.098152 0.584600 3.063178 
2.098152 0.584600 3.055216 
2.098152 0.584600 3.047253 
2.098152 0.584600 3.039291 
2.098152 0.584600 3.031328 
2.098152 0.584600 3.023366 
2.098152 0.584600 3.015403 
2.098152 0.584600 3.007441 
2.098152 0.584600 2.999478 
2.098152 0.584600 2.991516 
2.098152 0.584600 2.983553 
2.098152 0.584600 2.975591 
2.098152 0.584600 2.967628 
2.098152 0.584600 2.959665 
2.098152 0.584600 2.951703 
2.098152 0.584600 2.943740 
2.098152 0.584600 2.935778 
2.098152 0.584600 2.927815 
2.098152 0.584600 2.919853 
2.098152 0.584600 2.911890 
2.098152 0.584600 2.903928 
2.098152 0.584600 2.895965 
2.098152 0.584600 2.888003 
2.098152 0.584600 2.880040 
2.098152 0.584600 2.872078 
2.098152 0.584600 2.864115 
2.098152 0.584600 2.856153 
2.098152 0.584600 2.848190 
2.098152 0.584600 2.840228 
2.098152 0.584600 2.832265 
2.098152 0.584600 2.824302 
2.098152 0.584600 2.816340 
2.098152 0.584600 2.808377 
2.098152 0.584600 2.800415 
2.098152 0.584600 2.792452 
2.098152 0.584600 2.784490 
2.098152 0.584600 2.776527 
2.098152 0.584600 2.768565 
2.098152 0.584600 2.760602 
2.098152 0.584600 2.752640 
2.098152 0.584600 2.744677 
2.098152 0.584600 2.736715 
2.098152 0.584600 2.728752 
2.098152 0.584600 2.720790 
2.098152 0.584600 2.712827 
2.098152 0.584600 2.704864 
2.098152 0.584600 2.696902 
2.098152 0.584600 2.688939 
2.098152 0.584600 2.680977 
2.098152 0.584600 2.673014 
2.098152 0.584600 2.665052 
2.098152 0.584600 2.657089 
