2.098152 0.584600 -2.840698 
2.089495 0.599289 -2.840698 
2.080839 0.613978 -2.840698 
2.072182 0.628667 -2.840698 
2.063526 0.643356 -2.840698 
2.054869 0.658044 -2.840698 
2.046212 0.672733 -2.840698 
2.037556 0.687422 -2.840698 
2.028899 0.702111 -2.840698 
2.020243 0.716800 -2.840698 
2.011586 0.731489 -2.840698 
2.002929 0.746178 -2.840698 
1.994273 0.760867 -2.840698 
1.985616 0.775556 -2.840698 
1.976960 0.790244 -2.840698 
1.968303 0.804933 -2.840698 
1.959646 0.819622 -2.840698 
1.950990 0.834311 -2.840698 
1.942333 0.849000 -2.840698 
1.942333 0.849000 -2.832735 
1.942333 0.849000 -2.824773 
1.942333 0.849000 -2.816810 
1.942333 0.849000 -2.808848 
1.942333 0.849000 -2.800885 
1.942333 0.849000 -2.792923 
1.942333 0.849000 -2.784960 
1.942333 0.849000 -2.776998 
1.942333 0.849000 -2.769035 
1.942333 0.849000 -2.761073 
1.942333 0.849000 -2.753110 
1.942333 0.849000 -2.745147 
1.942333 0.849000 -2.737185 
1.942333 0.849000 -2.729222 
1.942333 0.849000 -2.721260 
1.942333 0.849000 -2.713297 
1.942333 0.849000 -2.705335 
1.942333 0.849000 -2.697372 
1.942333 0.849000 -2.689410 
1.942333 0.849000 -2.681447 
1.942333 0.849000 -2.673485 
1.942333 0.849000 -2.665522 
1.942333 0.849000 -2.657560 
1.942333 0.849000 -2.649597 
1.942333 0.849000 -2.641635 
1.942333 0.849000 -2.633672 
1.942333 0.849000 -2.625710 
1.942333 0.849000 -2.617747 
1.942333 0.849000 -2.609784 
1.942333 0.849000 -2.601822 
1.942333 0.849000 -2.593859 
1.942333 0.849000 -2.585897 
1.942333 0.849000 -2.577934 
1.942333 0.849000 -2.569972 
1.942333 0.849000 -2.562009 
1.942333 0.849000 -2.554047 
1.942333 0.849000 -2.546084 
1.942333 0.849000 -2.538122 
1.942333 0.849000 -2.530159 
1.942333 0.849000 -2.522197 
1.942333 0.849000 -2.514234 
1.942333 0.849000 -2.506272 
1.942333 0.849000 -2.498309 
1.942333 0.849000 -2.490346 
1.942333 0.849000 -2.482384 
1.942333 0.849000 -2.474421 
1.942333 0.849000 -2.466459 
1.942333 0.849000 -2.458496 
1.942333 0.849000 -2.450534 
1.942333 0.849000 -2.442571 
1.942333 0.849000 -2.434609 
1.942333 0.849000 -2.426646 
1.942333 0.849000 -2.418684 
1.942333 0.849000 -2.410721 
1.942333 0.849000 -2.402759 
1.942333 0.849000 -2.394796 
1.942333 0.849000 -2.386834 
1.942333 0.849000 -2.378871 
1.942333 0.849000 -2.370908 
1.942333 0.849000 -2.362946 
1.942333 0.849000 -2.354983 
1.942333 0.849000 -2.347021 
1.942333 0.849000 -2.339058 
1.942333 0.849000 -2.331096 
1.942333 0.849000 -2.323133 
1.942333 0.849000 -2.315171 
1.942333 0.849000 -2.307208 
1.942333 0.849000 -2.299246 
1.942333 0.849000 -2.291283 
1.942333 0.849000 -2.283321 
1.942333 0.849000 -2.275358 
1.942333 0.849000 -2.267396 
1.942333 0.849000 -2.259433 
1.942333 0.849000 -2.251470 
1.942333 0.849000 -2.243508 
1.942333 0.849000 -2.235545 
1.942333 0.849000 -2.227583 
1.942333 0.849000 -2.219620 
1.942333 0.849000 -2.211658 
1.942333 0.849000 -2.203695 
1.942333 0.849000 -2.195733 
1.942333 0.849000 -2.187770 
1.942333 0.849000 -2.187770 
1.950990 0.834311 -2.187770 
1.959646 0.819622 -2.187770 
1.968303 0.804933 -2.187770 
1.976960 0.790244 -2.187770 
1.985616 0.775556 -2.187770 
1.994273 0.760867 -2.187770 
2.002929 0.746178 -2.187770 
2.011586 0.731489 -2.187770 
2.020243 0.716800 -2.187770 
2.028899 0.702111 -2.187770 
2.037556 0.687422 -2.187770 
2.046212 0.672733 -2.187770 
2.054869 0.658044 -2.187770 
2.063526 0.643356 -2.187770 
2.072182 0.628667 -2.187770 
2.080839 0.613978 -2.187770 
2.089495 0.599289 -2.187770 
2.098152 0.584600 -2.187770 
2.098152 0.584600 -2.195733 
2.098152 0.584600 -2.203695 
2.098152 0.584600 -2.211658 
2.098152 0.584600 -2.219620 
2.098152 0.584600 -2.227583 
2.098152 0.584600 -2.235545 
2.098152 0.584600 -2.243508 
2.098152 0.584600 -2.251470 
2.098152 0.584600 -2.259433 
2.098152 0.584600 -2.267396 
2.098152 0.584600 -2.275358 
2.098152 0.584600 -2.283321 
2.098152 0.584600 -2.291283 
2.098152 0.584600 -2.299246 
2.098152 0.584600 -2.307208 
2.098152 0.584600 -2.315171 
2.098152 0.584600 -2.323133 
2.098152 0.584600 -2.331096 
2.098152 0.584600 -2.339058 
2.098152 0.584600 -2.347021 
2.098152 0.584600 -2.354983 
2.098152 0.584600 -2.362946 
2.098152 0.584600 -2.370908 
2.098152 0.584600 -2.378871 
2.098152 0.584600 -2.386834 
2.098152 0.584600 -2.394796 
2.098152 0.584600 -2.402759 
2.098152 0.584600 -2.410721 
2.098152 0.584600 -2.418684 
2.098152 0.584600 -2.426646 
2.098152 0.584600 -2.434609 
2.098152 0.584600 -2.442571 
2.098152 0.584600 -2.450534 
2.098152 0.584600 -2.458496 
2.098152 0.584600 -2.466459 
2.098152 0.584600 -2.474421 
2.098152 0.584600 -2.482384 
2.098152 0.584600 -2.490346 
2.098152 0.584600 -2.498309 
2.098152 0.584600 -2.506272 
2.098152 0.584600 -2.514234 
2.098152 0.584600 -2.522197 
2.098152 0.584600 -2.530159 
2.098152 0.584600 -2.538122 
2.098152 0.584600 -2.546084 
2.098152 0.584600 -2.554047 
2.098152 0.584600 -2.562009 
2.098152 0.584600 -2.569972 
2.098152 0.584600 -2.577934 
2.098152 0.584600 -2.585897 
2.098152 0.584600 -2.593859 
2.098152 0.584600 -2.601822 
2.098152 0.584600 -2.609784 
2.098152 0.584600 -2.617747 
2.098152 0.584600 -2.625710 
2.098152 0.584600 -2.633672 
2.098152 0.584600 -2.641635 
2.098152 0.584600 -2.649597 
2.098152 0.584600 -2.657560 
2.098152 0.584600 -2.665522 
2.098152 0.584600 -2.673485 
2.098152 0.584600 -2.681447 
2.098152 0.584600 -2.689410 
2.098152 0.584600 -2.697372 
2.098152 0.584600 -2.705335 
2.098152 0.584600 -2.713297 
2.098152 0.584600 -2.721260 
2.098152 0.584600 -2.729222 
2.098152 0.584600 -2.737185 
2.098152 0.584600 -2.745147 
2.098152 0.584600 -2.753110 
2.098152 0.584600 -2.761073 
2.098152 0.584600 -2.769035 
2.098152 0.584600 -2.776998 
2.098152 0.584600 -2.784960 
2.098152 0.584600 -2.792923 
2.098152 0.584600 -2.800885 
2.098152 0.584600 -2.808848 
2.098152 0.584600 -2.816810 
2.098152 0.584600 -2.824773 
2.098152 0.584600 -2.832735 
2.098152 0.584600 -2.840698 
