2.098152 0.584600 -2.055300 
2.089495 0.599289 -2.055300 
2.080839 0.613978 -2.055300 
2.072182 0.628667 -2.055300 
2.063526 0.643356 -2.055300 
2.054869 0.658044 -2.055300 
2.046212 0.672733 -2.055300 
2.037556 0.687422 -2.055300 
2.028899 0.702111 -2.055300 
2.020243 0.716800 -2.055300 
2.011586 0.731489 -2.055300 
2.002929 0.746178 -2.055300 
1.994273 0.760867 -2.055300 
1.985616 0.775556 -2.055300 
1.976960 0.790244 -2.055300 
1.968303 0.804933 -2.055300 
1.959646 0.819622 -2.055300 
1.950990 0.834311 -2.055300 
1.942333 0.849000 -2.055300 
1.942333 0.849000 -2.047337 
1.942333 0.849000 -2.039375 
1.942333 0.849000 -2.031412 
1.942333 0.849000 -2.023450 
1.942333 0.849000 -2.015487 
1.942333 0.849000 -2.007525 
1.942333 0.849000 -1.999562 
1.942333 0.849000 -1.991599 
1.942333 0.849000 -1.983637 
1.942333 0.849000 -1.975674 
1.942333 0.849000 -1.967712 
1.942333 0.849000 -1.959749 
1.942333 0.849000 -1.951787 
1.942333 0.849000 -1.943824 
1.942333 0.849000 -1.935862 
1.942333 0.849000 -1.927899 
1.942333 0.849000 -1.919937 
1.942333 0.849000 -1.911974 
1.942333 0.849000 -1.904012 
1.942333 0.849000 -1.896049 
1.942333 0.849000 -1.888087 
1.942333 0.849000 -1.880124 
1.942333 0.849000 -1.872161 
1.942333 0.849000 -1.864199 
1.942333 0.849000 -1.856236 
1.942333 0.849000 -1.848274 
1.942333 0.849000 -1.840311 
1.942333 0.849000 -1.832349 
1.942333 0.849000 -1.824386 
1.942333 0.849000 -1.816424 
1.942333 0.849000 -1.808461 
1.942333 0.849000 -1.800499 
1.942333 0.849000 -1.792536 
1.942333 0.849000 -1.784574 
1.942333 0.849000 -1.776611 
1.942333 0.849000 -1.768649 
1.942333 0.849000 -1.760686 
1.942333 0.849000 -1.752723 
1.942333 0.849000 -1.744761 
1.942333 0.849000 -1.736798 
1.942333 0.849000 -1.728836 
1.942333 0.849000 -1.720873 
1.942333 0.849000 -1.712911 
1.942333 0.849000 -1.704948 
1.942333 0.849000 -1.696986 
1.942333 0.849000 -1.689023 
1.942333 0.849000 -1.681061 
1.942333 0.849000 -1.673098 
1.942333 0.849000 -1.665136 
1.942333 0.849000 -1.657173 
1.942333 0.849000 -1.649211 
1.942333 0.849000 -1.641248 
1.942333 0.849000 -1.633285 
1.942333 0.849000 -1.625323 
1.942333 0.849000 -1.617360 
1.942333 0.849000 -1.609398 
1.942333 0.849000 -1.601435 
1.942333 0.849000 -1.593473 
1.942333 0.849000 -1.585510 
1.942333 0.849000 -1.577548 
1.942333 0.849000 -1.569585 
1.942333 0.849000 -1.561623 
1.942333 0.849000 -1.553660 
1.942333 0.849000 -1.545698 
1.942333 0.849000 -1.537735 
1.942333 0.849000 -1.529773 
1.942333 0.849000 -1.521810 
1.942333 0.849000 -1.513848 
1.942333 0.849000 -1.505885 
1.942333 0.849000 -1.497922 
1.942333 0.849000 -1.489960 
1.942333 0.849000 -1.481997 
1.942333 0.849000 -1.474035 
1.942333 0.849000 -1.466072 
1.942333 0.849000 -1.458110 
1.942333 0.849000 -1.450147 
1.942333 0.849000 -1.442185 
1.942333 0.849000 -1.434222 
1.942333 0.849000 -1.426260 
1.942333 0.849000 -1.418297 
1.942333 0.849000 -1.410335 
1.942333 0.849000 -1.402372 
1.942333 0.849000 -1.402372 
1.950990 0.834311 -1.402372 
1.959646 0.819622 -1.402372 
1.968303 0.804933 -1.402372 
1.976960 0.790244 -1.402372 
1.985616 0.775556 -1.402372 
1.994273 0.760867 -1.402372 
2.002929 0.746178 -1.402372 
2.011586 0.731489 -1.402372 
2.020243 0.716800 -1.402372 
2.028899 0.702111 -1.402372 
2.037556 0.687422 -1.402372 
2.046212 0.672733 -1.402372 
2.054869 0.658044 -1.402372 
2.063526 0.643356 -1.402372 
2.072182 0.628667 -1.402372 
2.080839 0.613978 -1.402372 
2.089495 0.599289 -1.402372 
2.098152 0.584600 -1.402372 
2.098152 0.584600 -1.410335 
2.098152 0.584600 -1.418297 
2.098152 0.584600 -1.426260 
2.098152 0.584600 -1.434222 
2.098152 0.584600 -1.442185 
2.098152 0.584600 -1.450147 
2.098152 0.584600 -1.458110 
2.098152 0.584600 -1.466072 
2.098152 0.584600 -1.474035 
2.098152 0.584600 -1.481997 
2.098152 0.584600 -1.489960 
2.098152 0.584600 -1.497922 
2.098152 0.584600 -1.505885 
2.098152 0.584600 -1.513848 
2.098152 0.584600 -1.521810 
2.098152 0.584600 -1.529773 
2.098152 0.584600 -1.537735 
2.098152 0.584600 -1.545698 
2.098152 0.584600 -1.553660 
2.098152 0.584600 -1.561623 
2.098152 0.584600 -1.569585 
2.098152 0.584600 -1.577548 
2.098152 0.584600 -1.585510 
2.098152 0.584600 -1.593473 
2.098152 0.584600 -1.601435 
2.098152 0.584600 -1.609398 
2.098152 0.584600 -1.617360 
2.098152 0.584600 -1.625323 
2.098152 0.584600 -1.633285 
2.098152 0.584600 -1.641248 
2.098152 0.584600 -1.649211 
2.098152 0.584600 -1.657173 
2.098152 0.584600 -1.665136 
2.098152 0.584600 -1.673098 
2.098152 0.584600 -1.681061 
2.098152 0.584600 -1.689023 
2.098152 0.584600 -1.696986 
2.098152 0.584600 -1.704948 
2.098152 0.584600 -1.712911 
2.098152 0.584600 -1.720873 
2.098152 0.584600 -1.728836 
2.098152 0.584600 -1.736798 
2.098152 0.584600 -1.744761 
2.098152 0.584600 -1.752723 
2.098152 0.584600 -1.760686 
2.098152 0.584600 -1.768649 
2.098152 0.584600 -1.776611 
2.098152 0.584600 -1.784574 
2.098152 0.584600 -1.792536 
2.098152 0.584600 -1.800499 
2.098152 0.584600 -1.808461 
2.098152 0.584600 -1.816424 
2.098152 0.584600 -1.824386 
2.098152 0.584600 -1.832349 
2.098152 0.584600 -1.840311 
2.098152 0.584600 -1.848274 
2.098152 0.584600 -1.856236 
2.098152 0.584600 -1.864199 
2.098152 0.584600 -1.872161 
2.098152 0.584600 -1.880124 
2.098152 0.584600 -1.888087 
2.098152 0.584600 -1.896049 
2.098152 0.584600 -1.904012 
2.098152 0.584600 -1.911974 
2.098152 0.584600 -1.919937 
2.098152 0.584600 -1.927899 
2.098152 0.584600 -1.935862 
2.098152 0.584600 -1.943824 
2.098152 0.584600 -1.951787 
2.098152 0.584600 -1.959749 
2.098152 0.584600 -1.967712 
2.098152 0.584600 -1.975674 
2.098152 0.584600 -1.983637 
2.098152 0.584600 -1.991599 
2.098152 0.584600 -1.999562 
2.098152 0.584600 -2.007525 
2.098152 0.584600 -2.015487 
2.098152 0.584600 -2.023450 
2.098152 0.584600 -2.031412 
2.098152 0.584600 -2.039375 
2.098152 0.584600 -2.047337 
2.098152 0.584600 -2.055300 
