2.098152 0.584600 -1.269902 
2.089495 0.599289 -1.269902 
2.080839 0.613978 -1.269902 
2.072182 0.628667 -1.269902 
2.063526 0.643356 -1.269902 
2.054869 0.658044 -1.269902 
2.046212 0.672733 -1.269902 
2.037556 0.687422 -1.269902 
2.028899 0.702111 -1.269902 
2.020243 0.716800 -1.269902 
2.011586 0.731489 -1.269902 
2.002929 0.746178 -1.269902 
1.994273 0.760867 -1.269902 
1.985616 0.775556 -1.269902 
1.976960 0.790244 -1.269902 
1.968303 0.804933 -1.269902 
1.959646 0.819622 -1.269902 
1.950990 0.834311 -1.269902 
1.942333 0.849000 -1.269902 
1.942333 0.849000 -1.261939 
1.942333 0.849000 -1.253976 
1.942333 0.849000 -1.246014 
1.942333 0.849000 -1.238051 
1.942333 0.849000 -1.230089 
1.942333 0.849000 -1.222126 
1.942333 0.849000 -1.214164 
1.942333 0.849000 -1.206201 
1.942333 0.849000 -1.198239 
1.942333 0.849000 -1.190276 
1.942333 0.849000 -1.182314 
1.942333 0.849000 -1.174351 
1.942333 0.849000 -1.166389 
1.942333 0.849000 -1.158426 
1.942333 0.849000 -1.150464 
1.942333 0.849000 -1.142501 
1.942333 0.849000 -1.134539 
1.942333 0.849000 -1.126576 
1.942333 0.849000 -1.118613 
1.942333 0.849000 -1.110651 
1.942333 0.849000 -1.102688 
1.942333 0.849000 -1.094726 
1.942333 0.849000 -1.086763 
1.942333 0.849000 -1.078801 
1.942333 0.849000 -1.070838 
1.942333 0.849000 -1.062876 
1.942333 0.849000 -1.054913 
1.942333 0.849000 -1.046951 
1.942333 0.849000 -1.038988 
1.942333 0.849000 -1.031026 
1.942333 0.849000 -1.023063 
1.942333 0.849000 -1.015101 
1.942333 0.849000 -1.007138 
1.942333 0.849000 -0.999175 
1.942333 0.849000 -0.991213 
1.942333 0.849000 -0.983250 
1.942333 0.849000 -0.975288 
1.942333 0.849000 -0.967325 
1.942333 0.849000 -0.959363 
1.942333 0.849000 -0.951400 
1.942333 0.849000 -0.943438 
1.942333 0.849000 -0.935475 
1.942333 0.849000 -0.927513 
1.942333 0.849000 -0.919550 
1.942333 0.849000 -0.911588 
1.942333 0.849000 -0.903625 
1.942333 0.849000 -0.895663 
1.942333 0.849000 -0.887700 
1.942333 0.849000 -0.879737 
1.942333 0.849000 -0.871775 
1.942333 0.849000 -0.863812 
1.942333 0.849000 -0.855850 
1.942333 0.849000 -0.847887 
1.942333 0.849000 -0.839925 
1.942333 0.849000 -0.831962 
1.942333 0.849000 -0.824000 
1.942333 0.849000 -0.816037 
1.942333 0.849000 -0.808075 
1.942333 0.849000 -0.800112 
1.942333 0.849000 -0.792150 
1.942333 0.849000 -0.784187 
1.942333 0.849000 -0.776225 
1.942333 0.849000 -0.768262 
1.942333 0.849000 -0.760299 
1.942333 0.849000 -0.752337 
1.942333 0.849000 -0.744374 
1.942333 0.849000 -0.736412 
1.942333 0.849000 -0.728449 
1.942333 0.849000 -0.720487 
1.942333 0.849000 -0.712524 
1.942333 0.849000 -0.704562 
1.942333 0.849000 -0.696599 
1.942333 0.849000 -0.688637 
1.942333 0.849000 -0.680674 
1.942333 0.849000 -0.672712 
1.942333 0.849000 -0.664749 
1.942333 0.849000 -0.656787 
1.942333 0.849000 -0.648824 
1.942333 0.849000 -0.640861 
1.942333 0.849000 -0.632899 
1.942333 0.849000 -0.624936 
1.942333 0.849000 -0.616974 
1.942333 0.849000 -0.616974 
1.950990 0.834311 -0.616974 
1.959646 0.819622 -0.616974 
1.968303 0.804933 -0.616974 
1.976960 0.790244 -0.616974 
1.985616 0.775556 -0.616974 
1.994273 0.760867 -0.616974 
2.002929 0.746178 -0.616974 
2.011586 0.731489 -0.616974 
2.020243 0.716800 -0.616974 
2.028899 0.702111 -0.616974 
2.037556 0.687422 -0.616974 
2.046212 0.672733 -0.616974 
2.054869 0.658044 -0.616974 
2.063526 0.643356 -0.616974 
2.072182 0.628667 -0.616974 
2.080839 0.613978 -0.616974 
2.089495 0.599289 -0.616974 
2.098152 0.584600 -0.616974 
2.098152 0.584600 -0.624936 
2.098152 0.584600 -0.632899 
2.098152 0.584600 -0.640861 
2.098152 0.584600 -0.648824 
2.098152 0.584600 -0.656787 
2.098152 0.584600 -0.664749 
2.098152 0.584600 -0.672712 
2.098152 0.584600 -0.680674 
2.098152 0.584600 -0.688637 
2.098152 0.584600 -0.696599 
2.098152 0.584600 -0.704562 
2.098152 0.584600 -0.712524 
2.098152 0.584600 -0.720487 
2.098152 0.584600 -0.728449 
2.098152 0.584600 -0.736412 
2.098152 0.584600 -0.744374 
2.098152 0.584600 -0.752337 
2.098152 0.584600 -0.760299 
2.098152 0.584600 -0.768262 
2.098152 0.584600 -0.776225 
2.098152 0.584600 -0.784187 
2.098152 0.584600 -0.792150 
2.098152 0.584600 -0.800112 
2.098152 0.584600 -0.808075 
2.098152 0.584600 -0.816037 
2.098152 0.584600 -0.824000 
2.098152 0.584600 -0.831962 
2.098152 0.584600 -0.839925 
2.098152 0.584600 -0.847887 
2.098152 0.584600 -0.855850 
2.098152 0.584600 -0.863812 
2.098152 0.584600 -0.871775 
2.098152 0.584600 -0.879737 
2.098152 0.584600 -0.887700 
2.098152 0.584600 -0.895663 
2.098152 0.584600 -0.903625 
2.098152 0.584600 -0.911588 
2.098152 0.584600 -0.919550 
2.098152 0.584600 -0.927513 
2.098152 0.584600 -0.935475 
2.098152 0.584600 -0.943438 
2.098152 0.584600 -0.951400 
2.098152 0.584600 -0.959363 
2.098152 0.584600 -0.967325 
2.098152 0.584600 -0.975288 
2.098152 0.584600 -0.983250 
2.098152 0.584600 -0.991213 
2.098152 0.584600 -0.999175 
2.098152 0.584600 -1.007138 
2.098152 0.584600 -1.015101 
2.098152 0.584600 -1.023063 
2.098152 0.584600 -1.031026 
2.098152 0.584600 -1.038988 
2.098152 0.584600 -1.046951 
2.098152 0.584600 -1.054913 
2.098152 0.584600 -1.062876 
2.098152 0.584600 -1.070838 
2.098152 0.584600 -1.078801 
2.098152 0.584600 -1.086763 
2.098152 0.584600 -1.094726 
2.098152 0.584600 -1.102688 
2.098152 0.584600 -1.110651 
2.098152 0.584600 -1.118613 
2.098152 0.584600 -1.126576 
2.098152 0.584600 -1.134539 
2.098152 0.584600 -1.142501 
2.098152 0.584600 -1.150464 
2.098152 0.584600 -1.158426 
2.098152 0.584600 -1.166389 
2.098152 0.584600 -1.174351 
2.098152 0.584600 -1.182314 
2.098152 0.584600 -1.190276 
2.098152 0.584600 -1.198239 
2.098152 0.584600 -1.206201 
2.098152 0.584600 -1.214164 
2.098152 0.584600 -1.222126 
2.098152 0.584600 -1.230089 
2.098152 0.584600 -1.238051 
2.098152 0.584600 -1.246014 
2.098152 0.584600 -1.253976 
2.098152 0.584600 -1.261939 
2.098152 0.584600 -1.269902 
