2.098152 0.584600 -0.484503 
2.089495 0.599289 -0.484503 
2.080839 0.613978 -0.484503 
2.072182 0.628667 -0.484503 
2.063526 0.643356 -0.484503 
2.054869 0.658044 -0.484503 
2.046212 0.672733 -0.484503 
2.037556 0.687422 -0.484503 
2.028899 0.702111 -0.484503 
2.020243 0.716800 -0.484503 
2.011586 0.731489 -0.484503 
2.002929 0.746178 -0.484503 
1.994273 0.760867 -0.484503 
1.985616 0.775556 -0.484503 
1.976960 0.790244 -0.484503 
1.968303 0.804933 -0.484503 
1.959646 0.819622 -0.484503 
1.950990 0.834311 -0.484503 
1.942333 0.849000 -0.484503 
1.942333 0.849000 -0.476541 
1.942333 0.849000 -0.468578 
1.942333 0.849000 -0.460616 
1.942333 0.849000 -0.452653 
1.942333 0.849000 -0.444691 
1.942333 0.849000 -0.436728 
1.942333 0.849000 -0.428766 
1.942333 0.849000 -0.420803 
1.942333 0.849000 -0.412841 
1.942333 0.849000 -0.404878 
1.942333 0.849000 -0.396916 
1.942333 0.849000 -0.388953 
1.942333 0.849000 -0.380990 
1.942333 0.849000 -0.373028 
1.942333 0.849000 -0.365065 
1.942333 0.849000 -0.357103 
1.942333 0.849000 -0.349140 
1.942333 0.849000 -0.341178 
1.942333 0.849000 -0.333215 
1.942333 0.849000 -0.325253 
1.942333 0.849000 -0.317290 
1.942333 0.849000 -0.309328 
1.942333 0.849000 -0.301365 
1.942333 0.849000 -0.293403 
1.942333 0.849000 -0.285440 
1.942333 0.849000 -0.277478 
1.942333 0.849000 -0.269515 
1.942333 0.849000 -0.261552 
1.942333 0.849000 -0.253590 
1.942333 0.849000 -0.245627 
1.942333 0.849000 -0.237665 
1.942333 0.849000 -0.229702 
1.942333 0.849000 -0.221740 
1.942333 0.849000 -0.213777 
1.942333 0.849000 -0.205815 
1.942333 0.849000 -0.197852 
1.942333 0.849000 -0.189890 
1.942333 0.849000 -0.181927 
1.942333 0.849000 -0.173965 
1.942333 0.849000 -0.166002 
1.942333 0.849000 -0.158040 
1.942333 0.849000 -0.150077 
1.942333 0.849000 -0.142114 
1.942333 0.849000 -0.134152 
1.942333 0.849000 -0.126189 
1.942333 0.849000 -0.118227 
1.942333 0.849000 -0.110264 
1.942333 0.849000 -0.102302 
1.942333 0.849000 -0.094339 
1.942333 0.849000 -0.086377 
1.942333 0.849000 -0.078414 
1.942333 0.849000 -0.070452 
1.942333 0.849000 -0.062489 
1.942333 0.849000 -0.054527 
1.942333 0.849000 -0.046564 
1.942333 0.849000 -0.038602 
1.942333 0.849000 -0.030639 
1.942333 0.849000 -0.022677 
1.942333 0.849000 -0.014714 
1.942333 0.849000 -0.006751 
1.942333 0.849000 0.001211 
1.942333 0.849000 0.009174 
1.942333 0.849000 0.017136 
1.942333 0.849000 0.025099 
1.942333 0.849000 0.033061 
1.942333 0.849000 0.041024 
1.942333 0.849000 0.048986 
1.942333 0.849000 0.056949 
1.942333 0.849000 0.064911 
1.942333 0.849000 0.072874 
1.942333 0.849000 0.080836 
1.942333 0.849000 0.088799 
1.942333 0.849000 0.096761 
1.942333 0.849000 0.104724 
1.942333 0.849000 0.112687 
1.942333 0.849000 0.120649 
1.942333 0.849000 0.128612 
1.942333 0.849000 0.136574 
1.942333 0.849000 0.144537 
1.942333 0.849000 0.152499 
1.942333 0.849000 0.160462 
1.942333 0.849000 0.168424 
1.942333 0.849000 0.168424 
1.950990 0.834311 0.168424 
1.959646 0.819622 0.168424 
1.968303 0.804933 0.168424 
1.976960 0.790244 0.168424 
1.985616 0.775556 0.168424 
1.994273 0.760867 0.168424 
2.002929 0.746178 0.168424 
2.011586 0.731489 0.168424 
2.020243 0.716800 0.168424 
2.028899 0.702111 0.168424 
2.037556 0.687422 0.168424 
2.046212 0.672733 0.168424 
2.054869 0.658044 0.168424 
2.063526 0.643356 0.168424 
2.072182 0.628667 0.168424 
2.080839 0.613978 0.168424 
2.089495 0.599289 0.168424 
2.098152 0.584600 0.168424 
2.098152 0.584600 0.160462 
2.098152 0.584600 0.152499 
2.098152 0.584600 0.144537 
2.098152 0.584600 0.136574 
2.098152 0.584600 0.128612 
2.098152 0.584600 0.120649 
2.098152 0.584600 0.112687 
2.098152 0.584600 0.104724 
2.098152 0.584600 0.096761 
2.098152 0.584600 0.088799 
2.098152 0.584600 0.080836 
2.098152 0.584600 0.072874 
2.098152 0.584600 0.064911 
2.098152 0.584600 0.056949 
2.098152 0.584600 0.048986 
2.098152 0.584600 0.041024 
2.098152 0.584600 0.033061 
2.098152 0.584600 0.025099 
2.098152 0.584600 0.017136 
2.098152 0.584600 0.009174 
2.098152 0.584600 0.001211 
2.098152 0.584600 -0.006751 
2.098152 0.584600 -0.014714 
2.098152 0.584600 -0.022677 
2.098152 0.584600 -0.030639 
2.098152 0.584600 -0.038602 
2.098152 0.584600 -0.046564 
2.098152 0.584600 -0.054527 
2.098152 0.584600 -0.062489 
2.098152 0.584600 -0.070452 
2.098152 0.584600 -0.078414 
2.098152 0.584600 -0.086377 
2.098152 0.584600 -0.094339 
2.098152 0.584600 -0.102302 
2.098152 0.584600 -0.110264 
2.098152 0.584600 -0.118227 
2.098152 0.584600 -0.126189 
2.098152 0.584600 -0.134152 
2.098152 0.584600 -0.142114 
2.098152 0.584600 -0.150077 
2.098152 0.584600 -0.158040 
2.098152 0.584600 -0.166002 
2.098152 0.584600 -0.173965 
2.098152 0.584600 -0.181927 
2.098152 0.584600 -0.189890 
2.098152 0.584600 -0.197852 
2.098152 0.584600 -0.205815 
2.098152 0.584600 -0.213777 
2.098152 0.584600 -0.221740 
2.098152 0.584600 -0.229702 
2.098152 0.584600 -0.237665 
2.098152 0.584600 -0.245627 
2.098152 0.584600 -0.253590 
2.098152 0.584600 -0.261552 
2.098152 0.584600 -0.269515 
2.098152 0.584600 -0.277478 
2.098152 0.584600 -0.285440 
2.098152 0.584600 -0.293403 
2.098152 0.584600 -0.301365 
2.098152 0.584600 -0.309328 
2.098152 0.584600 -0.317290 
2.098152 0.584600 -0.325253 
2.098152 0.584600 -0.333215 
2.098152 0.584600 -0.341178 
2.098152 0.584600 -0.349140 
2.098152 0.584600 -0.357103 
2.098152 0.584600 -0.365065 
2.098152 0.584600 -0.373028 
2.098152 0.584600 -0.380990 
2.098152 0.584600 -0.388953 
2.098152 0.584600 -0.396916 
2.098152 0.584600 -0.404878 
2.098152 0.584600 -0.412841 
2.098152 0.584600 -0.420803 
2.098152 0.584600 -0.428766 
2.098152 0.584600 -0.436728 
2.098152 0.584600 -0.444691 
2.098152 0.584600 -0.452653 
2.098152 0.584600 -0.460616 
2.098152 0.584600 -0.468578 
2.098152 0.584600 -0.476541 
2.098152 0.584600 -0.484503 
